ply
format ascii 1.0
element vertex 1283
property float x
property float y
property float z
property uchar red
property uchar green
property uchar blue
end_header
-37.9374 44.6884 -51.7833 255 255 255
-34.2234 36.8607 -61.3616 255 255 255
12.8793 -34.5053 30.7668 255 255 255
-24.5465 16.0699 -49.1037 255 255 255
46.544 24.045 -41.3468 255 255 255
-28.843 11.9004 -43.9723 255 255 255
-12.5069 -23.1576 35.2008 255 255 255
-12.0024 -20.3832 32.5834 255 255 255
-43.6733 48.1817 -44.0506 255 255 255
0.872741 -23.5885 34.8087 255 255 255
-63.7239 27.2571 -47.7781 255 255 255
-68.7698 34.3315 -34.7708 255 255 255
1.51634 -24.2831 35.3972 255 255 255
13.785 -22.5971 32.0289 255 255 255
15.0753 -27.5009 33.3498 255 255 255
-20.4207 -24.9817 33.4938 255 255 255
28.474 28.382 -66.4845 255 255 255
-25.269 54.777 -51.9015 255 255 255
18.9601 -16.0613 24.2802 255 255 255
27.644 59.6704 -89.0162 255 255 255
-25.3589 -15.0101 22.2676 255 255 255
7.52187 57.6399 -76.5032 255 255 255
-16.7545 57.3066 -57.0206 255 255 255
3.93795 53.2819 -75.8292 255 255 255
-16.9017 -24.7865 32.8609 255 255 255
-16.6009 -23.4379 31.9951 255 255 255
29.2989 15.0508 -50.9412 255 255 255
-17.0271 -23.8908 31.8952 255 255 255
-10.094 -7.78332 31.8855 255 255 255
14.4254 -28.081 33.8122 255 255 255
-46.2874 42.055 -47.1992 255 255 255
-17.4328 57.3433 -56.3233 255 255 255
-42.253 44.1887 -49.3367 255 255 255
-47.7119 30.9097 -57.8227 255 255 255
50.223 20.0613 -35.728 255 255 255
-48.1116 30.1749 -58.4436 255 255 255
-41.853 50.4271 -43.5127 255 255 255
-51.5198 33.5981 -50.5416 255 255 255
24.7174 -15.4748 18.5947 255 255 255
-41.7046 51.735 -42.7855 255 255 255
48.986 28.2884 -33.191 255 255 255
50.388 -11.1204 -15.5139 255 255 255
50.7237 -15.3764 -16.625 255 255 255
0.611951 -12.7454 35.6336 255 255 255
2.44687 -14.5467 35.6708 255 255 255
8.75863 -29.3446 35.8903 255 255 255
-5.94535 -58.4913 34.2619 255 255 255
49.2368 -40.616 10.3712 255 255 255
-22.4032 -57.1078 33.6069 255 255 255
54.3392 -9.63967 -4.81204 255 255 255
-20.3052 -23.8847 32.1583 255 255 255
54.4471 -16.5341 -9.03589 255 255 255
-16.6003 -23.4479 31.9542 255 255 255
55.1076 -16.0636 -7.53325 255 255 255
-12.4082 -20.1864 32.2877 255 255 255
-15.3838 -16.0278 30.5548 255 255 255
52.9088 -9.86584 -9.08715 255 255 255
-23.7919 -53.6427 30.005 255 255 255
-10.1696 -13.5491 33.7491 255 255 255
-8.14894 -20.976 34.4015 255 255 255
-3.41187 -21.9984 34.9759 255 255 255
-3.69948 -22.4717 34.8639 255 255 255
-4.10219 -22.6549 34.8485 255 255 255
-12.5121 -23.1346 35.2564 255 255 255
53.9407 -13.896 -9.34783 255 255 255
58.116 -23.5187 -5.85075 255 255 255
58.016 -25.8349 -7.73451 255 255 255
57.1125 -22.6643 -7.32009 255 255 255
-20.469 -55.4466 31.7312 255 255 255
44.7189 -37.9262 7.23011 255 255 255
-6.8961 -10.2671 34.3232 255 255 255
-31.5814 -49.4721 25.7984 255 255 255
-72.7079 1.4616 -30.1334 255 255 255
-0.100195 -25.4328 36.7917 255 255 255
2.29599 -29.6307 36.767 255 255 255
24.5438 -17.5395 20.998 255 255 255
18.7502 -21.8989 27.2323 255 255 255
16.5549 -27.6261 33.0057 255 255 255
13.5393 -30.1967 34.3443 255 255 255
-1.46147 -31.5331 38.7177 255 255 255
-28.9513 -52.3729 28.6782 255 255 255
-26.151 -56.0516 32.7046 255 255 255
-26.8359 -56.4926 33.2153 255 255 255
7.45032 -2.09004 26.3593 255 255 255
49.8779 -7.45441 -12.8833 255 255 255
12.1679 -10.9615 30.3404 255 255 255
4.13513 -29.2838 36.2374 255 255 255
-18.3122 -17.2139 29.26 255 255 255
-23.7013 -16.4447 24.205 255 255 255
-15.7176 -18.883 30.6853 255 255 255
-13.0335 -21.982 33.8859 255 255 255
-13.2719 -26.5179 34.4109 255 255 255
6.62746 -30.4371 37.3588 255 255 255
17.7873 -18.1811 26.8068 255 255 255
18.7539 -22.8697 27.828 255 255 255
9.09783 -23.3786 33.6745 255 255 255
6.11751 -23.2849 33.9266 255 255 255
49.5034 -46.8038 17.1192 255 255 255
15.7584 -19.17 28.198 255 255 255
22.0004 -20.8515 24.6946 255 255 255
18.0696 -25.9957 31.3265 255 255 255
15.2508 -26.6996 32.3433 255 255 255
15.2581 -26.7166 32.2998 255 255 255
-7.19785 -23.6956 34.9491 255 255 255
12.9861 -32.5861 32.6349 255 255 255
2.17101 -41.2911 29.8337 255 255 255
17.9369 -23.4553 28.5846 255 255 255
-9.88111 -29.468 37.8823 255 255 255
-18.7999 -37.9417 25.4523 255 255 255
6.65605 -34.0162 37.4401 255 255 255
-20.6121 -8.06177 18.4925 255 255 255
-2.85743 -15.6678 35.8416 255 255 255
-13.1821 53.8416 -62.9952 255 255 255
-35.4432 6.91904 -38.2502 255 255 255
-21.5247 -8.36302 19.2297 255 255 255
-23.5926 -23.3501 31.8144 255 255 255
-13.1307 -4.59127 27.815 255 255 255
-21.3739 -6.46969 16.9455 255 255 255
-10.1612 48.1358 -70.5414 255 255 255
-2.72972 -8.84285 34.9627 255 255 255
-10.2308 -1.78395 27.4734 255 255 255
-7.59523 -7.20504 32.6264 255 255 255
-45.8489 -24.9028 -1.31314 255 255 255
-62.6095 31.5433 -44.1829 255 255 255
-60.6189 42.677 -35.4122 255 255 255
2.06148 -9.57197 34.672 255 255 255
7.02326 -7.7244 31.9261 255 255 255
-8.67211 -10.2049 33.6457 255 255 255
26.5063 58.4063 -89.6659 255 255 255
0.834443 -12.0451 35.5011 255 255 255
-12.0899 -22.6423 34.7603 255 255 255
48.1004 66.4261 -98.2323 255 255 255
-9.7092 -29.1327 37.2097 255 255 255
7.00466 68.9058 -64.8199 255 255 255
-24.3634 53.591 -54.7522 255 255 255
-26.9215 52.7875 -53.3794 255 255 255
-9.7178 -17.1222 34.2712 255 255 255
15.2508 21.4235 -57.7819 255 255 255
21.7331 22.7365 -59.5899 255 255 255
17.4465 22.2448 -58.5296 255 255 255
9.83462 -33.5649 33.7255 255 255 255
14.3105 -17.2465 29.251 255 255 255
-48.612 -4.66075 -24.1148 255 255 255
-21.6477 -14.3171 25.9822 255 255 255
-63.0058 -14.0723 -12.591 255 255 255
21.2457 -3.57266 4.35693 255 255 255
-15.7618 -39.8377 28.5078 255 255 255
-50.0399 -0.943012 -28.4043 255 255 255
50.0435 20.6277 -36.4134 255 255 255
20.8838 -20.6899 24.8508 255 255 255
-2.59703 16.0045 -50.4852 255 255 255
10.038 -28.9851 35.4411 255 255 255
15.3403 -33.929 29.9295 255 255 255
7.9142 -4.14044 29.207 255 255 255
-6.38094 -46.0356 31.9589 255 255 255
-10.0603 -32.8483 35.4667 255 255 255
1.27886 -39.7707 31.7973 255 255 255
-52.8301 34.7558 -49.2635 255 255 255
-52.2176 38.7696 -46.1715 255 255 255
-69.3237 29.062 -43.6137 255 255 255
-19.1154 -22.7332 30.9732 255 255 255
-49.0366 39.9742 -46.2379 255 255 255
-35.0473 32.2769 -65.4347 255 255 255
50.4568 34.8347 -75.2604 255 255 255
-3.71167 1.34121 21.7162 255 255 255
-39.9729 43.7994 -50.5668 255 255 255
-31.0943 -51.3187 27.8902 255 255 255
19.9616 -14.6276 22.4997 255 255 255
-47.1081 -26.7404 0.345468 255 255 255
-37.998 -52.8525 29.5373 255 255 255
-22.6206 -7.40651 17.9746 255 255 255
48.3016 21.3852 -39.2012 255 255 255
-33.2463 3.03539 -33.7966 255 255 255
-18.246 -14.0953 27.1386 255 255 255
-25.4913 18.1478 -51.2105 255 255 255
34.8729 -51.2073 23.0041 255 255 255
46.2568 -31.8317 -0.27949 255 255 255
53.8266 -13.3467 -9.08494 255 255 255
-38.1514 -49.7187 25.9954 255 255 255
23.2852 20.3095 -56.4395 255 255 255
-14.4434 -7.5421 28.7245 255 255 255
-39.7324 45.0484 -50.1641 255 255 255
52.9343 -19.204 -14.2253 255 255 255
-25.7281 -56.1254 32.7354 255 255 255
-36.086 33.8763 -62.8297 255 255 255
16.3151 29.2118 -66.6668 255 255 255
47.0716 -41.3119 11.2397 255 255 255
-22.9542 28.2264 -62.8675 255 255 255
4.2495 -16.2563 35.2745 255 255 255
-23.9237 7.86188 -39.2271 255 255 255
-4.48863 18.2441 -52.7537 255 255 255
-26.1249 -56.0053 32.8611 255 255 255
54.1244 -47.4629 18.4936 255 255 255
3.71132 -14.7865 35.5027 255 255 255
-69.8377 30.6105 -40.5106 255 255 255
46.8056 7.67521 -11.8001 255 255 255
52.2169 -11.1027 -10.694 255 255 255
-7.95843 -12.7361 34.5905 255 255 255
-12.5118 -28.7859 36.7792 255 255 255
-0.537349 -13.954 35.9943 255 255 255
-69.3352 26.7102 -45.5698 255 255 255
-106.226 -7.81555 -15.5734 255 255 255
-64.7234 -1.60535 -27.0872 255 255 255
-76.2189 8.53933 -37.6691 255 255 255
-74.5852 7.62388 -36.5312 255 255 255
-63.4142 33.85 -40.0913 255 255 255
12.0749 -14.4406 31.1448 255 255 255
-74.2362 16.5788 -47.0731 255 255 255
-74.4324 37.6487 -30.5618 255 255 255
-29.8006 -52.4669 28.9252 255 255 255
-2.64385 -11.6423 35.6473 255 255 255
-51.1871 28.6892 -53.2621 255 255 255
-73.3132 29.6897 -45.2478 255 255 255
-16.7225 54.2352 -60.0465 255 255 255
13.2772 61.0179 -74.9631 255 255 255
-48.4782 32.7234 -56.3958 255 255 255
-49.4647 46.7203 -40.7909 255 255 255
-69.0872 38.7041 -32.84 255 255 255
-19.6134 52.4743 -57.9636 255 255 255
-39.2318 44.8098 -50.6355 255 255 255
-60.6289 -12.2915 -14.6833 255 255 255
-67.3391 -1.20562 -26.8343 255 255 255
-33.1375 -57.8069 35.0702 255 255 255
-35.2556 -51.815 28.4964 255 255 255
-5.81491 -6.58361 32.7961 255 255 255
-21.1084 -7.3298 17.8748 255 255 255
6.38323 -17.0842 34.498 255 255 255
-16.4395 -22.629 32.3035 255 255 255
13.7851 -33.9479 30.8436 255 255 255
17.573 17.9538 -53.8012 255 255 255
-37.969 15.7838 -48.2806 255 255 255
-39.0305 14.2558 -46.0793 255 255 255
9.43362 -2.24838 26.0351 255 255 255
-0.160758 -8.13707 34.2503 255 255 255
4.84711 -9.68193 33.8039 255 255 255
4.84869 -9.68864 33.7747 255 255 255
19.2693 -15.7432 23.8871 255 255 255
18.3115 -16.6223 25.0045 255 255 255
5.60037 -15.7842 34.8499 255 255 255
-22.505 -16.3262 25.87 255 255 255
4.89356 -19.5594 34.8651 255 255 255
-8.59394 -23.9482 35.9261 255 255 255
-1.27339 -32.2739 38.2412 255 255 255
52.8035 -40.7882 10.4558 255 255 255
-30.6955 17.728 -50.3715 255 255 255
31.5924 12.7681 -48.6771 255 255 255
-38.1532 16.8172 -48.6354 255 255 255
28.7355 11.9913 -47.3454 255 255 255
25.2128 11.1936 -46.6399 255 255 255
24.9546 10.1532 -45.461 255 255 255
-2.90648 2.40092 21.5417 255 255 255
9.99628 -4.88603 28.462 255 255 255
-70.5778 -1.39798 -26.4438 255 255 255
25.6692 -11.1337 13.1305 255 255 255
-21.9027 -8.41867 19.0396 255 255 255
4.57843 -21.5321 34.3488 255 255 255
2.01815 -24.7572 35.9123 255 255 255
13.4075 -33.3496 31.5928 255 255 255
-30.5851 -49.9148 26.3684 255 255 255
-48.3249 -55.7012 34.6388 255 255 255
-1.60116 2.27784 20.8816 255 255 255
12.2528 -8.3805 29.0549 255 255 255
12.6754 -22.81 32.2361 255 255 255
-6.30879 -22.8998 34.4832 255 255 255
9.06039 -28.5649 34.972 255 255 255
-2.43783 -29.7036 37.2184 255 255 255
34.8228 -44.8516 16.0928 255 255 255
-35.5965 -49.1684 25.1683 255 255 255
8.6479 -2.7342 27.775 255 255 255
-25.7142 -7.4845 13.5929 255 255 255
9.50618 -10.5393 31.8634 255 255 255
4.34691 -24.1888 34.978 255 255 255
-0.214949 -24.7864 36.2694 255 255 255
-23.1541 -55.55 32.5758 255 255 255
-43.9932 -9.2424 -18.953 255 255 255
49.7132 -44.3616 14.8786 255 255 255
-34.2368 -49.8946 26.2922 255 255 255
15.1058 -9.39525 26.736 255 255 255
-43.6366 -10.5386 -17.3081 255 255 255
-29.5854 -57.5305 34.7151 255 255 255
23.6349 -34.599 18.6725 255 255 255
-21.8612 -55.573 31.998 255 255 255
20.0474 -33.0288 23.678 255 255 255
-43.8414 -56.0703 34.2984 255 255 255
3.76468 -15.8291 35.5183 255 255 255
-59.0448 -12.5438 -14.549 255 255 255
-55.033 -24.1184 -1.55284 255 255 255
53.6807 -5.09304 -3.78443 255 255 255
25.73 -16.4991 19.4456 255 255 255
-2.00762 -28.79 36.2635 255 255 255
31.4269 12.1156 -48.1248 255 255 255
18.3803 -36.4536 23.3313 255 255 255
36.9624 -48.733 20.1427 255 255 255
12.9679 -31.3806 33.6306 255 255 255
-29.1935 -27.2087 15.3164 255 255 255
-53.5008 -28.5344 3.26195 255 255 255
-23.3304 -23.0597 31.5699 255 255 255
-17.4945 -26.7611 35.1629 255 255 255
3.17986 -20.0916 35.2187 255 255 255
19.6104 53.8175 -88.227 255 255 255
-61.32 -12.4449 -15.0198 255 255 255
-0.85623 -30.4295 37.926 255 255 255
-10.9367 -35.8919 32.415 255 255 255
-9.709 -34.7464 33.6581 255 255 255
6.12182 -31.5073 38.5273 255 255 255
-18.2163 -59.2243 35.5874 255 255 255
-18.9115 -58.1644 34.6272 255 255 255
-7.49995 64.7216 -57.7239 255 255 255
-80.6982 -11.6637 -14.4458 255 255 255
-5.9672 0.465011 23.634 255 255 255
-3.99552 -11.8818 35.4186 255 255 255
-2.1331 -18.2494 36.0236 255 255 255
-1.5309 -19.3605 35.915 255 255 255
-1.25464 -17.0372 36.1405 255 255 255
-18.4193 56.8135 -56.3923 255 255 255
47.8706 15.2367 -4.14272 255 255 255
6.24362 -13.0829 34.513 255 255 255
-4.98269 -10.5782 34.9064 255 255 255
-21.7767 -6.95379 17.3093 255 255 255
48.979 64.1677 -100.922 255 255 255
24.5894 62.9773 -84.2113 255 255 255
12.9395 70.9083 -67.9238 255 255 255
-15.5647 -17.8707 30.2245 255 255 255
-8.04486 -15.1627 34.8966 255 255 255
-2.32543 -12.2765 35.6852 255 255 255
-5.78983 -13.7251 35.3889 255 255 255
-52.1597 40.3101 -44.7434 255 255 255
-52.2099 41.2811 -42.189 255 255 255
13.0237 -15.9379 30.5126 255 255 255
10.9363 -9.67963 30.7193 255 255 255
14.4867 -14.2822 29.1706 255 255 255
16.1203 -25.933 31.3347 255 255 255
7.9869 -39.1655 29.7754 255 255 255
14.3022 -10.3184 28.257 255 255 255
12.9933 -10.0294 29.3354 255 255 255
13.9923 -8.49995 27.5828 255 255 255
11.4289 -29.9893 35.7848 255 255 255
8.83131 -9.26974 31.6606 255 255 255
2.64361 -9.13653 34.3176 255 255 255
1.5504 -12.3565 35.4872 255 255 255
-39.8718 40.1603 -54.3669 255 255 255
4.07067 47.1377 -81.9966 255 255 255
52.1879 -20.9611 -12.0381 255 255 255
15.6244 -19.4984 28.6537 255 255 255
-17.8899 -24.5389 32.5067 255 255 255
-13.0155 51.6094 -66.3475 255 255 255
-13.0155 51.6094 -66.3475 255 255 255
45.8074 25.0184 -42.2071 255 255 255
2.71674 46.9616 -81.1375 255 255 255
22.0981 18.8395 -54.3727 255 255 255
29.0143 16.5472 -52.3944 255 255 255
49.0162 -5.49258 -14.3764 255 255 255
51.3831 -8.24222 -10.8887 255 255 255
48.7098 -7.29057 -15.6274 255 255 255
53.5709 -13.6375 -9.19766 255 255 255
49.0857 -20.4677 -13.059 255 255 255
2.99027 -14.5878 35.6001 255 255 255
59.0701 -28.5203 -3.92368 255 255 255
59.2921 -28.8072 -3.5559 255 255 255
1.14798 -16.6044 36.0538 255 255 255
20.4972 -22.562 27.1257 255 255 255
-13.3734 -14.8171 31.8583 255 255 255
16.9881 -25.5403 30.9243 255 255 255
15.806 -25.5942 31.0191 255 255 255
13.6526 -28.0344 33.8715 255 255 255
-12.6873 -22.4419 34.6519 255 255 255
-12.809 -22.7188 34.6457 255 255 255
-8.78372 -24.0844 36.3345 255 255 255
44.6243 -42.1133 12.3276 255 255 255
35.9581 -46.7285 17.9534 255 255 255
23.9445 -54.6088 27.6227 255 255 255
-1.08029 -58.8748 33.977 255 255 255
-20.5961 -55.0392 31.2435 255 255 255
-32.5296 -53.7479 30.4282 255 255 255
4.72831 48.5206 -81.8028 255 255 255
51.0946 35.4174 -75.8251 255 255 255
41.6096 29.8255 -68.8104 255 255 255
48.7314 6.94843 -7.59093 255 255 255
-26.3877 18.7522 -51.9936 255 255 255
-53.4975 -4.10688 -24.9728 255 255 255
58.2997 -41.4115 11.2047 255 255 255
54.9982 -42.9849 12.5938 255 255 255
42.7871 -45.0775 15.6726 255 255 255
-11.9872 -33.3381 33.9467 255 255 255
-35.5473 -49.9522 26.6005 255 255 255
-27.6194 48.1749 -56.1872 255 255 255
-11.0417 48.14 -69.7258 255 255 255
49.3831 6.61678 -5.96569 255 255 255
50.0281 -7.36833 -13.4404 255 255 255
-42.016 -9.076 -20.6121 255 255 255
4.06924 -24.7978 35.9248 255 255 255
-22.9408 -21.0536 28.4698 255 255 255
-16.4488 -25.3853 33.6972 255 255 255
33.4884 -47.9544 18.8145 255 255 255
-3.77924 -59.4995 35.3146 255 255 255
3.78611 48.7926 -80.1899 255 255 255
-8.90068 -3.5494 29.5223 255 255 255
34.9033 -47.361 18.288 255 255 255
30.029 19.5254 -55.822 255 255 255
-24.1383 10.6727 -42.9769 255 255 255
37.6947 -48.9613 20.4633 255 255 255
48.845 -42.9132 12.8653 255 255 255
-33.8144 -52.8172 29.4239 255 255 255
45.3632 -44.3926 14.9567 255 255 255
45.584 -45.0426 16.9219 255 255 255
34.7178 -46.2337 17.4995 255 255 255
-32.5304 -51.8689 28.3576 255 255 255
49.7548 -13.8208 -18.4028 255 255 255
5.68928 -22.5842 33.6753 255 255 255
34.9191 -47.3907 18.1831 255 255 255
-46.5001 45.0708 -45.4097 255 255 255
-8.62437 -29.5706 37.6 255 255 255
49.6276 24.4877 -34.1542 255 255 255
-9.75447 -10.9954 33.5123 255 255 255
-22.7856 -54.8274 30.6824 255 255 255
19.1999 33.1292 -70.9937 255 255 255
-0.728168 -23.9129 35.3204 255 255 255
-4.55766 22.7107 -57.3789 255 255 255
23.5195 -24.2045 27.78 255 255 255
53.1658 -43.3492 12.9649 255 255 255
33.0267 -49.9344 21.7424 255 255 255
-23.2304 -55.8038 32.3604 255 255 255
-19.4039 -56.1052 32.8291 255 255 255
-26.2473 -55.0541 31.5613 255 255 255
-29.265 -54.8186 31.4704 255 255 255
-15.4068 -47.5855 27.352 255 255 255
30.7068 16.8379 -53.7757 255 255 255
-6.45918 -26.9746 35.7687 255 255 255
-9.69844 -19.5213 34.0336 255 255 255
56.8103 -43.706 13.9567 255 255 255
-0.898125 -49.175 29.5327 255 255 255
-35.5138 -51.7411 28.1998 255 255 255
-45.5497 -33.8835 8.89822 255 255 255
-67.1922 30.1279 -40.5781 255 255 255
6.24897 51.3188 -79.5494 255 255 255
8.70892 60.8084 -67.0788 255 255 255
28.9317 63.8946 -86.1216 255 255 255
36.5987 75.069 -82.4331 255 255 255
41.1853 70.472 -90.2833 255 255 255
28.9646 63.962 -86.3149 255 255 255
16.6455 -11.792 25.4319 255 255 255
8.50589 -23.5992 33.8503 255 255 255
7.27288 -23.962 34.4909 255 255 255
31.2752 74.6704 -78.7914 255 255 255
-25.959 -57.1238 33.7755 255 255 255
-27.6559 43.1542 -61.1714 255 255 255
43.1898 76.8598 -85.4352 255 255 255
41.6876 73.7036 -87.0446 255 255 255
46.1661 29.6572 -38.8842 255 255 255
53.3759 -7.37681 -6.06344 255 255 255
-33.4351 35.7056 -63.8205 255 255 255
0.249507 65.4078 -62.8037 255 255 255
-27.4908 -55.322 32.0511 255 255 255
-1.30896 -39.5127 32.264 255 255 255
23.7533 60.3309 -85.7405 255 255 255
-32.8047 33.9604 -65.3706 255 255 255
-11.0164 48.1737 -69.983 255 255 255
-29.5714 -56.473 33.485 255 255 255
-30.4593 -51.5779 28.0246 255 255 255
-21.8333 -55.4209 31.7491 255 255 255
58.4451 -25.1552 -5.50369 255 255 255
-27.4674 -53.7296 30.2833 255 255 255
-27.0596 -54.4474 31.1588 255 255 255
49.412 -15.1814 -18.2011 255 255 255
-21.4082 9.76001 -41.8636 255 255 255
-20.8356 -4.81545 14.7271 255 255 255
50.3372 -16.0678 -16.6215 255 255 255
47.2147 -1.39171 -16.5688 255 255 255
-80.5826 28.7284 -33.6017 255 255 255
11.9084 64.3331 -73.362 255 255 255
26.1813 63.3733 -84.5115 255 255 255
52.1915 41.1025 -82.676 255 255 255
43.9682 35.6627 -74.4499 255 255 255
18.5693 31.1323 -69.0996 255 255 255
24.8782 23.2133 -60.1527 255 255 255
54.677 68.1401 -101.57 255 255 255
21.1334 20.2618 -56.5587 255 255 255
23.2703 64.971 -82.1406 255 255 255
13.2772 61.0179 -74.9631 255 255 255
22.3617 37.0667 -76.5364 255 255 255
-40.4958 37.9915 -56.3627 255 255 255
31.9313 40.8648 -80.3629 255 255 255
18.0961 36.8649 -75.459 255 255 255
22.1909 62.5414 -83.09 255 255 255
18.1107 35.5926 -73.3386 255 255 255
-44.7921 48.8648 -42.5133 255 255 255
-74.252 29.0832 -42.9166 255 255 255
-70.3276 27.6137 -45.6242 255 255 255
18.1217 71.5577 -70.9296 255 255 255
15.1575 -28.7457 34.4155 255 255 255
-27.3553 -53.2205 29.5438 255 255 255
-34.9584 -48.9299 25.4246 255 255 255
-6.10139 -10.7937 34.6662 255 255 255
15.219 -16.2312 28.1661 255 255 255
14.4897 -4.78794 23.036 255 255 255
50.3311 -14.1668 -17.9959 255 255 255
21.9172 -34.4103 19.0515 255 255 255
-16.1944 -25.7465 33.8529 255 255 255
-74.5111 7.14729 -36.2261 255 255 255
42.4909 -44.9443 15.6107 255 255 255
6.84276 -10.0942 32.986 255 255 255
6.07785 48.4564 -82.5636 255 255 255
15.1366 -39.9587 25.8236 255 255 255
-26.5705 -9.14238 15.7554 255 255 255
50.7005 17.9499 -36.7443 255 255 255
-44.1907 -25.256 -0.940455 255 255 255
49.9102 -14.326 -17.6531 255 255 255
51.7867 -47.5277 18.3001 255 255 255
6.17546 -31.127 38.0766 255 255 255
19.0544 40.8578 -80.5592 255 255 255
15.7876 -29.2024 34.4453 255 255 255
-4.02506 -7.66555 33.8113 255 255 255
30.1554 -52.1801 24.3488 255 255 255
-42.6556 39.7866 -52.2226 255 255 255
11.9328 -33.5839 32.458 255 255 255
-48.8115 41.2273 -45.9931 255 255 255
21.5827 -23.2759 27.6728 255 255 255
46.6858 -43.4678 13.1832 255 255 255
-4.11141 -9.12816 34.4786 255 255 255
19.7827 37.9899 -76.3021 255 255 255
50.1364 -14.3289 -18.236 255 255 255
20.4283 -29.0132 27.056 255 255 255
9.32931 -5.08809 29.1587 255 255 255
-45.6943 -26.8222 1.00689 255 255 255
11.4918 -33.9506 32.366 255 255 255
-4.45165 -16.2961 35.8557 255 255 255
-21.0446 -3.45516 13.2604 255 255 255
-50.7763 -28.8162 3.20009 255 255 255
45.5756 -45.8078 16.3917 255 255 255
52.5763 -4.42234 -5.93173 255 255 255
47.4988 -46.2022 16.7352 255 255 255
-36.6258 6.45656 -37.3815 255 255 255
-30.1242 -51.2046 27.4054 255 255 255
49.3741 33.4558 -30.2938 255 255 255
48.6193 -12.1509 -19.9397 255 255 255
48.4729 29.0409 -33.8076 255 255 255
-3.10929 -29.9843 37.6204 255 255 255
16.798 -15.2507 26.0285 255 255 255
5.07392 -40.3695 30.6486 255 255 255
-4.56503 -11.1175 35.1186 255 255 255
-4.15367 1.41669 21.9117 255 255 255
48.9364 -48.528 19.4327 255 255 255
-28.1365 -54.3984 30.924 255 255 255
50.3162 -2.55529 -9.84243 255 255 255
-8.53704 13.402 -46.8635 255 255 255
-67.6719 -1.70229 -26.883 255 255 255
13.3048 -14.0169 30.3313 255 255 255
12.7495 -18.7816 30.9003 255 255 255
-1.13197 -1.42749 27.4708 255 255 255
14.4315 -4.81264 23.6465 255 255 255
6.76359 -30.8672 37.584 255 255 255
7.81737 -38.6591 30.6019 255 255 255
-32.4276 -50.7742 27.2497 255 255 255
-5.25841 -20.7589 35.1616 255 255 255
45.4762 26.3104 -42.9633 255 255 255
-30.1021 -51.1865 27.51 255 255 255
-15.0444 -1.76199 22.8918 255 255 255
-4.52013 -9.01996 34.3443 255 255 255
2.01565 -10.6229 35.082 255 255 255
12.612 -38.054 28.1774 255 255 255
-28.0136 -54.7686 31.4525 255 255 255
4.62106 -11.2134 34.3786 255 255 255
12.7091 -40.0476 26.2527 255 255 255
-32.9628 -50.5584 29.1501 255 255 255
-24.1334 -22.8598 30.6561 255 255 255
-36.5729 5.69625 -36.251 255 255 255
-22.1264 -55.3568 31.7419 255 255 255
-22.7934 -6.8733 17.4573 255 255 255
-27.891 -13.4754 20.6817 255 255 255
-27.4292 -16.9508 24.9778 255 255 255
3.27255 -7.78823 33.5171 255 255 255
-12.6289 -6.65604 29.7305 255 255 255
15.3551 -26.7892 32.3443 255 255 255
-26.3635 -54.6655 31.6901 255 255 255
11.6399 -9.69562 29.9891 255 255 255
-9.29782 -10.2029 33.5931 255 255 255
-66.4053 -0.821907 -28.1494 255 255 255
10.6253 -10.0474 31.1132 255 255 255
22.0684 -54.1961 27.5326 255 255 255
25.018 62.6877 -84.6125 255 255 255
25.018 62.6877 -84.6125 255 255 255
24.3547 60.999 -85.2728 255 255 255
52.257 65.5355 -102.955 255 255 255
8.41528 56.0127 -75.7069 255 255 255
21.899 54.7684 -89.6821 255 255 255
-74.6348 29.3803 -42.8071 255 255 255
-13.2727 -0.495122 23.2658 255 255 255
-22.2757 -12.9796 24.3869 255 255 255
54.8836 -16.9206 -7.62657 255 255 255
12.2264 -28.5406 34.5287 255 255 255
50.3808 -38.7409 8.35207 255 255 255
53.9962 -47.1505 17.7565 255 255 255
12.1897 59.3903 -77.3232 255 255 255
52.5419 67.433 -100.527 255 255 255
-20.5595 51.8852 -58.1012 255 255 255
-13.3688 52.0556 -64.3447 255 255 255
19.2523 56.2355 -85.308 255 255 255
2.33044 52.3388 -75.7691 255 255 255
20.7418 51.2639 -91.1116 255 255 255
-5.23236 14.3258 -48.1428 255 255 255
26.8353 10.4453 -44.6497 255 255 255
-71.8424 2.7709 -31.6375 255 255 255
-64.1858 -2.4715 -25.2821 255 255 255
3.53935 -7.88988 33.5846 255 255 255
51.5628 -15.3775 -14.5948 255 255 255
33.7355 -38.3925 10.1024 255 255 255
47.1749 -42.0451 12.2682 255 255 255
56.7346 -43.5413 13.4799 255 255 255
27.1946 -53.6914 26.518 255 255 255
-0.927405 -58.6564 33.8061 255 255 255
-75.303 29.1453 -43.9395 255 255 255
24.0407 35.6022 -74.7094 255 255 255
49.7403 20.2996 -36.6607 255 255 255
-6.32236 19.7054 -53.8029 255 255 255
-71.5572 18.7381 -49.4417 255 255 255
48.9619 8.88162 -6.25372 255 255 255
-75.7439 9.73032 -38.6631 255 255 255
-22.0499 8.22181 -39.9622 255 255 255
-66.3428 0.18884 -28.4975 255 255 255
-7.96716 -4.25877 30.5119 255 255 255
-7.30715 -8.58061 33.5314 255 255 255
50.0715 -11.9807 -15.0067 255 255 255
-22.0092 -12.638 24.1496 255 255 255
52.5142 -12.9621 -11.2834 255 255 255
52.2739 -12.9654 -10.6256 255 255 255
-26.8814 -18.6089 26.5619 255 255 255
-3.47361 -38.8114 32.4529 255 255 255
58.4743 -43.6695 13.6121 255 255 255
22.4373 -54.4466 27.2946 255 255 255
-70.8856 2.5898 -31.5255 255 255 255
20.8128 53.9053 -88.5245 255 255 255
-5.21898 -22.7543 34.6175 255 255 255
-38.566 13.3841 -45.1984 255 255 255
43.7965 -46.8183 17.9851 255 255 255
19.7544 36.0288 -73.7962 255 255 255
45.261 -46.0032 16.621 255 255 255
-73.6743 28.5825 -43.2055 255 255 255
46.898 -44.6063 15.3085 255 255 255
41.654 -29.7288 -1.9908 255 255 255
-38.5134 7.18824 -38.1561 255 255 255
6.9089 0.0508638 24.3408 255 255 255
50.3065 -14.9641 -17.9801 255 255 255
16.2432 -29.2311 35.0779 255 255 255
-2.94996 14.3476 -48.0152 255 255 255
-7.02935 -17.6677 35.2294 255 255 255
-34.2661 3.40354 -34.3852 255 255 255
-12.7144 -0.663314 24.0543 255 255 255
45.5415 -47.0753 18.0325 255 255 255
14.9463 -56.8833 30.8269 255 255 255
24.0936 28.1768 -65.9294 255 255 255
24.0936 28.1768 -65.9294 255 255 255
-20.0215 -3.11033 12.8246 255 255 255
51.988 -15.8573 -14.8394 255 255 255
49.7508 -39.0736 8.36341 255 255 255
-27.4774 28.1157 -62.6499 255 255 255
-3.27799 22.553 -57.7758 255 255 255
-3.3856 15.7891 -50.2229 255 255 255
24.5458 6.57379 -40.9534 255 255 255
-3.29526 -8.40744 34.2731 255 255 255
-27.7778 -9.98693 16.5672 255 255 255
-54.0897 -13.0524 -13.9629 255 255 255
20.9131 -12.6455 20.0158 255 255 255
11.7359 -14.3518 31.4361 255 255 255
22.5626 41.8925 -82.2594 255 255 255
47.6205 22.5871 -39.2519 255 255 255
-45.2385 -25.0438 -1.03361 255 255 255
49.8541 -39.5946 9.75559 255 255 255
50.1822 -41.6242 11.2362 255 255 255
-11.7661 -10.4529 32.3557 255 255 255
-62.8131 -13.4799 -13.7252 255 255 255
-0.933104 -58.581 34.0409 255 255 255
-1.00685 -58.2417 33.8385 255 255 255
46.2327 26.8479 -40.9754 255 255 255
49.0727 -14.0183 -19.563 255 255 255
49.0125 -42.4334 12.0585 255 255 255
3.62821 50.2261 -79.1211 255 255 255
-7.89441 13.7362 -47.1666 255 255 255
54.5904 -13.5253 -7.14901 255 255 255
-8.75879 -16.9473 34.6061 255 255 255
48.0532 -41.0333 10.8615 255 255 255
33.8802 -49.7935 21.7573 255 255 255
20.4435 40.9739 -79.0246 255 255 255
51.1304 -8.34112 -11.4921 255 255 255
5.87717 -18.3749 34.7026 255 255 255
46.9079 23.9246 -41.2748 255 255 255
-44.6756 -8.11527 -20.3019 255 255 255
29.8743 15.7633 -51.1465 255 255 255
-73.3788 3.30852 -32.1111 255 255 255
6.29574 -12.7524 34.2614 255 255 255
1.86506 -30.7318 38.0179 255 255 255
-36.3182 -52.13 28.8974 255 255 255
15.8746 34.8975 -73.0081 255 255 255
-71.2204 3.36693 -33.0041 255 255 255
7.84976 -42.1178 24.6128 255 255 255
-32.0091 -49.6129 25.7608 255 255 255
30.1825 14.3545 -49.5377 255 255 255
31.7345 13.4419 -49.1396 255 255 255
34.055 -46.9954 18.3114 255 255 255
-32.1714 -50.158 26.7009 255 255 255
-17.4345 -24.8058 32.9364 255 255 255
48.5195 37.8144 -28.6252 255 255 255
-72.3995 27.8286 -45.6347 255 255 255
-51.1288 33.1696 -51.3935 255 255 255
-72.7141 7.8226 -36.9887 255 255 255
-40.5815 15.587 -47.7639 255 255 255
-57.2003 14.706 -45.1001 255 255 255
-61.1729 31.0163 -46.459 255 255 255
-70.1096 34.3418 -42.4553 255 255 255
-52.3516 -6.69017 -22.3986 255 255 255
-62.1568 36.3721 -39.6508 255 255 255
-69.7092 25.3162 -45.3548 255 255 255
-74.7612 7.70027 -37.0128 255 255 255
-63.0321 -10.3647 -17.4255 255 255 255
38.6611 -43.3721 13.271 255 255 255
-6.13169 -58.4346 34.0212 255 255 255
-29.314 -56.243 33.2897 255 255 255
22.7698 -19.3525 23.1503 255 255 255
-37.735 -50.0793 26.5486 255 255 255
2.48779 -12.4439 35.2969 255 255 255
-68.5588 -54.8806 36.1632 255 255 255
11.7609 -11.8178 30.9904 255 255 255
-33.4877 -24.8592 9.86245 255 255 255
-14.8731 -26.4092 34.5712 255 255 255
-3.89659 -41.4532 30.2888 255 255 255
-23.5066 -21.8881 30.2025 255 255 255
10.15 -28.4051 34.8189 255 255 255
-4.90426 -31.4636 39.4647 255 255 255
-32.8968 -55.0387 32.1086 255 255 255
3.48547 -22.2494 34.394 255 255 255
-4.4591 -36.2286 35.8546 255 255 255
2.11723 -40.9137 30.2603 255 255 255
-6.28014 -30.5335 38.6094 255 255 255
-67.1334 -54.1748 34.7984 255 255 255
6.38885 -31.9548 39.3638 255 255 255
-1.76725 -16.7892 36.1346 255 255 255
-38.0302 -57.8831 35.9262 255 255 255
1.52492 -15.7055 36.0765 255 255 255
2.64551 -14.6991 35.6556 255 255 255
-23.9849 -56.8926 34.171 255 255 255
-14.8731 -26.4092 34.5712 255 255 255
11.766 -11.8266 30.9324 255 255 255
-82.7516 -49.4508 31.5974 255 255 255
25.0101 -9.55853 11.3232 255 255 255
8.29236 -35.795 32.993 255 255 255
6.24849 -12.5982 34.1899 255 255 255
-1.72993 -19.5832 35.8458 255 255 255
-0.910707 -13.3434 35.8487 255 255 255
0.474309 -25.0278 36.4035 255 255 255
-34.0187 -51.5524 28.2852 255 255 255
49.9768 -13.8184 -18.1688 255 255 255
2.82613 -18.2182 35.6087 255 255 255
-30.3457 -55.6123 32.177 255 255 255
3.65538 -14.4922 35.5102 255 255 255
10.6798 -14.7054 32.4374 255 255 255
-33.157 -57.575 34.9084 255 255 255
-27.3312 -54.9116 31.8609 255 255 255
3.32388 -12.8746 35.2364 255 255 255
-38.2685 -52.2932 29.3666 255 255 255
-4.45733 -16.2932 35.8613 255 255 255
-15.1588 -28.4676 37.1823 255 255 255
-6.51914 -29.5268 37.369 255 255 255
-4.78701 -31.6647 39.5824 255 255 255
55.854 -44.0356 13.9869 255 255 255
-28.8911 -56.4529 33.3513 255 255 255
-22.8427 -56.7985 33.2953 255 255 255
12.2041 -19.4779 30.9081 255 255 255
8.80055 -25.8405 34.1996 255 255 255
-75.7248 -45.1673 23.0072 255 255 255
12.6845 -31.0802 33.9796 255 255 255
8.14196 -37.3087 31.4266 255 255 255
50.1554 -40.3438 9.85794 255 255 255
-30.1259 -56.2769 33.0828 255 255 255
-19.4737 -58.1526 34.7802 255 255 255
54.2045 -17.1719 -10.2048 255 255 255
14.6602 -23.7002 31.0801 255 255 255
12.8845 -28.9769 34.9247 255 255 255
-4.62812 -41.5267 30.4272 255 255 255
-28.0136 -54.7686 31.4525 255 255 255
50.2024 -40.6062 10.8654 255 255 255
6.80388 -19.6352 34.2212 255 255 255
6.54888 -19.4667 34.3348 255 255 255
6.79395 -20.2861 33.9736 255 255 255
10.2199 -32.9694 34.0704 255 255 255
-29.5626 -56.4658 33.508 255 255 255
-26.4868 -53.8992 30.5761 255 255 255
6.38452 -22.2671 33.6372 255 255 255
-4.71157 -31.3407 39.4307 255 255 255
-20.6622 -55.6407 31.8006 255 255 255
-12.8167 -18.4845 32.3421 255 255 255
-6.08962 -18.1683 35.5111 255 255 255
12.0024 -12.9831 30.9175 255 255 255
15.5236 -28.3104 34.0451 255 255 255
1.55549 -32.2989 37.7689 255 255 255
-26.6043 -56.8324 33.615 255 255 255
-22.8486 -57.3544 33.8709 255 255 255
-22.8495 -57.3484 33.8669 255 255 255
-45.0283 -31.7579 6.4897 255 255 255
8.35373 -29.5776 36.2059 255 255 255
1.86588 -30.7194 38.0436 255 255 255
-32.9258 -49.2257 25.6703 255 255 255
4.82163 -42.1376 29.3638 255 255 255
53.1148 -40.5869 10.2915 255 255 255
-27.7528 -53.3809 29.8533 255 255 255
11.1671 -11.93 31.3381 255 255 255
19.4828 -20.6446 26.7585 255 255 255
0.150808 -23.717 35.0111 255 255 255
9.28242 -29.4291 36.1219 255 255 255
12.5417 -38.7555 27.4834 255 255 255
6.70643 -38.935 31.6677 255 255 255
13.0592 -39.1891 26.5613 255 255 255
1.72789 -40.4206 30.8488 255 255 255
7.17095 -40.6193 29.4411 255 255 255
49.9249 -41.1201 10.3034 255 255 255
-21.9597 -55.8137 32.2722 255 255 255
14.6799 -11.9329 28.2221 255 255 255
14.6359 -11.9289 28.5056 255 255 255
15.7421 -11.9494 26.9265 255 255 255
6.74028 -32.4329 38.5184 255 255 255
-26.7526 -56.1675 32.9023 255 255 255
-23.676 -57.1835 33.6758 255 255 255
-7.94791 -30.2484 38.2022 255 255 255
-33.6839 -52.2503 28.9452 255 255 255
20.769 -20.4387 25.1048 255 255 255
-23.3465 -56.7714 33.3998 255 255 255
-5.13445 -30.8834 38.9676 255 255 255
15.3403 -33.929 29.9295 255 255 255
20.8537 -32.0247 23.2636 255 255 255
17.3385 -31.908 29.7638 255 255 255
-25.3823 -55.1154 31.4808 255 255 255
41.4329 -30.0096 -1.88967 255 255 255
-35.7207 -51.8222 28.4831 255 255 255
6.58503 -58.0001 32.3987 255 255 255
36.7986 -42.7582 13.6898 255 255 255
43.0652 -48.5325 20.5817 255 255 255
5.13829 -15.4372 35.1632 255 255 255
-22.8485 -55.3843 31.8431 255 255 255
50.1021 -10.8274 -13.459 255 255 255
0.626479 -17.9322 36.0032 255 255 255
-26.6723 -54.9845 31.6032 255 255 255
58.7875 -25.572 -5.58125 255 255 255
3.70569 -15.3528 35.4476 255 255 255
34.3935 71.881 -83.5385 255 255 255
43.0591 75.1359 -87.0454 255 255 255
24.1945 59.7893 -86.3928 255 255 255
0.716041 61.4935 -68.4769 255 255 255
23.3796 58.601 -86.7194 255 255 255
43.8117 61.0143 -99.8068 255 255 255
50.3907 68.0076 -98.4552 255 255 255
35.5316 73.7801 -82.4913 255 255 255
25.8256 71.818 -77.524 255 255 255
23.4231 57.3592 -87.1421 255 255 255
-7.44495 66.371 -56.36 255 255 255
48.8075 61.887 -103.224 255 255 255
64.5034 72.3478 -105.608 255 255 255
53.7183 70.257 -98.9472 255 255 255
60.8804 64.8663 -109.062 255 255 255
6.31222 60.8127 -72.0564 255 255 255
57.2606 62.7989 -106.352 255 255 255
8.40894 54.6546 -77.2073 255 255 255
22.8326 60.5251 -85.2467 255 255 255
2.82572 53.608 -75.1487 255 255 255
61.1276 64.4794 -109.475 255 255 255
47.0597 61.2911 -101.878 255 255 255
27.6257 66.8629 -76.4288 255 255 255
27.8855 67.5522 -78.4334 255 255 255
11.0721 62.2681 -73.5631 255 255 255
42.8436 50.1756 -92.2743 255 255 255
7.91185 62.7221 -70.6534 255 255 255
61.3143 66.1728 -111.809 255 255 255
60.2992 66.1839 -111.445 255 255 255
12.8233 65.6211 -71.9207 255 255 255
-26.9228 52.7767 -53.3206 255 255 255
-12.9827 54.1324 -62.5654 255 255 255
-39.8333 52.9978 -42.8526 255 255 255
-17.5206 53.9631 -59.4211 255 255 255
-38.6493 44.4372 -51.1362 255 255 255
-17.1944 61.6843 -53.1501 255 255 255
-50.5659 47.629 -39.478 255 255 255
-5.26385 -9.23181 34.3311 255 255 255
-3.48763 -10.3141 35.0333 255 255 255
-9.87345 0.00101076 25.2539 255 255 255
-22.4012 -6.93841 17.4328 255 255 255
-2.01297 -14.1869 36.0205 255 255 255
-10.0989 -6.38136 30.9905 255 255 255
-13.6053 -3.25396 25.896 255 255 255
-12.5717 -3.88279 27.6722 255 255 255
-15.6687 -26.8905 35.2043 255 255 255
-23.5499 -21.5744 29.8345 255 255 255
-7.31975 -29.0863 36.9798 255 255 255
-2.56331 -30.3706 37.9716 255 255 255
-7.8462 -2.40786 27.093 255 255 255
44.1028 67.1626 -94.2628 255 255 255
-11.9085 56.7392 -61.4468 255 255 255
-36.6073 5.05915 -35.9374 255 255 255
-10.3108 -19.0138 33.6433 255 255 255
12.6604 -11.473 29.932 255 255 255
6.1245 49.9856 -80.6441 255 255 255
2.88421 58.5987 -70.2462 255 255 255
44.2655 68.0292 -93.8699 255 255 255
53.5023 -19.3111 -13.2011 255 255 255
45.6089 27.2113 -42.1174 255 255 255
-81.1028 18.1113 -43.3161 255 255 255
-55.7455 -49.9317 28.2298 255 255 255
-61.8183 -52.0435 31.6475 255 255 255
53.7439 -20.2021 -12.9776 255 255 255
-6.08775 65.9103 -57.671 255 255 255
48.6072 34.3389 -30.2228 255 255 255
-55.7455 -49.9317 28.2298 255 255 255
17.2897 67.1672 -74.2877 255 255 255
-51.2721 -3.23565 -25.7057 255 255 255
-17.4656 55.1746 -58.4836 255 255 255
40.2351 77.8101 -83.6635 255 255 255
48.6324 -0.39881 -12.2826 255 255 255
-51.7821 -3.35659 -24.4229 255 255 255
-24.8197 -56.1063 32.7135 255 255 255
-45.036 -27.112 1.16419 255 255 255
-15.082 -11.0876 29.8797 255 255 255
-19.7925 -24.6728 33.0331 255 255 255
-24.0473 -32.8047 23.3648 255 255 255
-57.4521 -17.1078 -9.41006 255 255 255
-62.3245 -7.22903 -20.8775 255 255 255
22.265 20.928 -57.4038 255 255 255
49.8296 -14.4034 -18.5216 255 255 255
-45.1727 -6.77001 -21.8172 255 255 255
45.6543 27.2579 -42.3547 255 255 255
6.7596 -29.5226 36.2507 255 255 255
-21.6952 -22.454 30.5663 255 255 255
-26.3607 -52.9374 29.4128 255 255 255
-56.276 -21.7087 -5.18864 255 255 255
-31.6884 -51.0078 27.5206 255 255 255
-19.9675 -59.3153 36.0852 255 255 255
-24.6531 -55.7398 32.4162 255 255 255
-33.7099 -51.7532 28.5634 255 255 255
-29.5783 -53.1994 29.7047 255 255 255
-27.9127 -53.6498 30.218 255 255 255
46.3023 -48.7373 19.0564 255 255 255
-44.8039 40.2813 -50.1605 255 255 255
0.677228 -32.3343 37.889 255 255 255
-1.99629 -18.945 35.9517 255 255 255
-30.7895 57.7183 -45.7237 255 255 255
-15.9423 -15.6144 29.9616 255 255 255
32.3286 72.0857 -81.7914 255 255 255
-52.8914 -6.7905 -21.6538 255 255 255
4.12413 -6.23154 32.0398 255 255 255
-6.92368 -5.89093 32.191 255 255 255
-45.6965 -26.8433 0.993936 255 255 255
23.2297 -18.1974 21.9731 255 255 255
42.086 62.5073 -97.2467 255 255 255
-15.9182 -14.3765 29.7991 255 255 255
-60.4828 -3.3491 -24.5206 255 255 255
49.0525 7.19605 -5.45452 255 255 255
33.6704 70.959 -83.5842 255 255 255
50.2194 21.8953 -34.4774 255 255 255
40.483 -31.857 0.285978 255 255 255
48.2822 -12.5356 -20.8199 255 255 255
-2.48303 -11.9189 35.654 255 255 255
-40.4682 -37.7589 12.8209 255 255 255
2.46128 -47.3585 30.6953 255 255 255
53.8011 -20.2082 -13.0194 255 255 255
14.4252 65.3697 -74.3597 255 255 255
3.59925 -8.30845 33.6892 255 255 255
49.7747 23.7438 -34.4047 255 255 255
0.339942 -24.5412 35.8149 255 255 255
2.52745 50.2745 -78.0867 255 255 255
-10.3603 -0.584908 25.9769 255 255 255
49.7947 -5.68605 -13.0323 255 255 255
-77.7479 11.5603 -41.2145 255 255 255
-47.9432 41.6072 -47.1797 255 255 255
-33.8195 24.4738 -57.8927 255 255 255
48.2305 35.0425 -75.8078 255 255 255
-47.4158 30.1206 -59.1548 255 255 255
0.646492 60.0711 -67.9502 255 255 255
49.3821 67.7801 -97.9649 255 255 255
51.2396 66.3873 -100.181 255 255 255
-1.85156 58.9913 -67.2093 255 255 255
-33.8338 47.6952 -52.4947 255 255 255
-13.2206 51.6958 -64.9685 255 255 255
27.1268 58.3622 -90.4419 255 255 255
-33.1881 34.3922 -65.2573 255 255 255
-48.2496 29.2522 -59.8903 255 255 255
25.974 54.9767 -91.5955 255 255 255
-53.9257 39.5087 -44.1173 255 255 255
28.9549 61.8194 -88.3299 255 255 255
27.1276 58.3626 -90.4318 255 255 255
-7.19915 49.1418 -71.5592 255 255 255
-35.3336 16.8841 -49.5108 255 255 255
19.6035 57.4295 -85.3384 255 255 255
-27.1069 48.3646 -56.2906 255 255 255
45.4522 60.9128 -100.949 255 255 255
-5.02939 59.0672 -64.5516 255 255 255
24.8796 54.2539 -91.3616 255 255 255
3.94984 53.3836 -76.1291 255 255 255
-54.1151 41.5138 -41.7427 255 255 255
-15.3416 54.7621 -60.5674 255 255 255
-22.1743 54.635 -55.1311 255 255 255
-15.4216 53.8051 -61.205 255 255 255
-13.1595 57.5993 -59.5398 255 255 255
29.0224 62.6543 -86.9038 255 255 255
50.1099 62.3829 -103.576 255 255 255
45.4521 64.4027 -97.8711 255 255 255
-26.3582 51.9728 -54.504 255 255 255
-17.5107 53.9728 -59.4379 255 255 255
-24.3207 51.6401 -56.2577 255 255 255
-29.525 45.5167 -57.7924 255 255 255
-37.0692 33.205 -63.5334 255 255 255
-66.2224 42.623 -31.4688 255 255 255
35.2853 74.6288 -81.7899 255 255 255
18.7496 50.0788 -89.5084 255 255 255
50.3175 62.947 -102.899 255 255 255
1.12892 59.8797 -68.5477 255 255 255
49.1665 60.5594 -103.827 255 255 255
13.4725 -17.3559 30.2064 255 255 255
-23.9917 54.0205 -54.2259 255 255 255
49.9741 -7.79462 -14.0057 255 255 255
48.0639 -5.9196 -17.201 255 255 255
52.5695 -18.6394 -15.0302 255 255 255
23.7822 -18.855 22.5556 255 255 255
-27.5472 -14.5624 21.936 255 255 255
21.3811 -20.8936 25.1126 255 255 255
47.2604 -2.59789 -16.9349 255 255 255
-1.83238 -20.2533 35.6344 255 255 255
52.357 -16.9639 -14.1629 255 255 255
-58.3753 -13.3183 -13.9562 255 255 255
-21.7491 -4.76079 14.6735 255 255 255
-26.2269 -10.5379 16.9888 255 255 255
10.5002 -2.78506 25.7838 255 255 255
-6.22205 -9.17592 33.6527 255 255 255
-4.72079 -30.9407 38.9967 255 255 255
12.0381 -4.42224 26.0858 255 255 255
22.1078 -19.339 23.2901 255 255 255
12.04 -23.0092 32.6488 255 255 255
11.7285 -6.8091 28.7005 255 255 255
12.2818 -21.8672 31.5068 255 255 255
6.44166 -31.5669 38.4502 255 255 255
-18.7296 -25.0934 33.3537 255 255 255
10.5323 -23.3385 33.235 255 255 255
-6.61018 -7.11001 32.8303 255 255 255
7.17671 -17.8128 34.2092 255 255 255
-27.8845 -52.1174 28.4562 255 255 255
7.93857 -17.8681 33.8551 255 255 255
-22.7046 -8.00754 18.7503 255 255 255
3.90375 -9.61889 34.18 255 255 255
18.6326 -25.5483 30.592 255 255 255
6.93403 -24.4112 34.9928 255 255 255
12.0788 -7.40462 28.6446 255 255 255
19.7333 17.6401 -53.2097 255 255 255
19.003 -17.7378 26.184 255 255 255
-7.42143 -23.5813 35.3568 255 255 255
-46.8396 12.1576 -44.5441 255 255 255
10.5526 -1.99168 24.945 255 255 255
15.1117 -11.4157 27.6148 255 255 255
-54.8462 -27.5123 2.12209 255 255 255
2.76847 -7.59034 33.4065 255 255 255
0.780687 -30.4087 37.7344 255 255 255
5.03002 -10.2331 33.8662 255 255 255
-5.52917 -28.864 36.6429 255 255 255
2.96246 -11.5129 35.0202 255 255 255
-40.976 16.0774 -47.8116 255 255 255
5.42391 -6.61276 32.1163 255 255 255
11.302 -8.84779 29.8512 255 255 255
12.8218 -22.0363 31.8284 255 255 255
12.2057 -9.03986 29.2965 255 255 255
-15.6539 -26.8985 35.2941 255 255 255
-6.52848 -29.5108 37.5087 255 255 255
-22.6474 -31.3456 26.3876 255 255 255
-24.5458 -18.9878 27.0199 255 255 255
5.11821 -24.8609 35.8309 255 255 255
8.28694 -10.7774 32.562 255 255 255
12.4744 -4.86424 25.9759 255 255 255
0.919683 -23.8088 34.9961 255 255 255
8.25264 -6.88872 30.6658 255 255 255
10.0474 -8.60878 30.8073 255 255 255
20.7631 -21.1784 25.4045 255 255 255
9.20226 -12.8463 32.7312 255 255 255
14.7965 -17.0161 28.9949 255 255 255
8.9504 -26.1392 33.9728 255 255 255
21.2077 -20.0051 24.2546 255 255 255
-2.56501 -29.4455 37.0347 255 255 255
10.5972 -23.0635 32.9447 255 255 255
6.47029 -22.2086 33.502 255 255 255
-4.2936 -23.9874 35.6698 255 255 255
23.3552 -22.4986 26.0808 255 255 255
7.15789 -11.4063 33.4051 255 255 255
-27.4566 -51.7795 28.2644 255 255 255
6.49129 -24.4722 34.9647 255 255 255
-13.4445 -35.0789 31.8854 255 255 255
13.9106 -14.0789 29.5922 255 255 255
6.77701 -23.8691 34.3687 255 255 255
6.44166 -31.5669 38.4502 255 255 255
12.8251 -3.57894 24.1994 255 255 255
14.8137 -17.0057 28.8634 255 255 255
-7.55433 -29.1116 36.9287 255 255 255
-23.9272 -23.069 31.526 255 255 255
-27.5201 -51.9959 28.3491 255 255 255
14.4177 -28.0805 33.8395 255 255 255
-3.37754 -29.457 37.1862 255 255 255
-1.74125 -24.6725 36.1612 255 255 255
22.7798 -21.3448 25.3208 255 255 255
13.6337 -6.54501 26.4861 255 255 255
-4.2936 -23.9874 35.6698 255 255 255
19.939 -14.6209 22.5438 255 255 255
15.0453 -15.6195 28.5287 255 255 255
-22.5858 -22.3707 30.4114 255 255 255
9.47409 -0.395593 23.2074 255 255 255
-28.3389 -52.1994 28.545 255 255 255
18.2213 -17.7805 26.2806 255 255 255
14.8423 -6.04991 24.2111 255 255 255
15.6445 -8.26639 24.9017 255 255 255
2.05138 -14.5543 35.8012 255 255 255
12.1599 -5.70064 26.9777 255 255 255
19.63 -6.1803 11.86 255 255 255
0.478642 -25.0244 36.4002 255 255 255
7.03001 -29.9692 36.7443 255 255 255
24.1983 -18.4758 22.1141 255 255 255
-18.2021 -24.5442 32.7072 255 255 255
-12.2787 -21.7994 33.8071 255 255 255
21.2077 -20.0051 24.2546 255 255 255
-2.43004 -29.6791 37.2674 255 255 255
-48.9418 -10.1416 -17.7806 255 255 255
14.5549 -11.2622 28.374 255 255 255
15.2983 -13.7136 28.0916 255 255 255
23.0485 -23.9857 28.1179 255 255 255
10.5032 -29.5284 35.8335 255 255 255
-4.88497 -29.7903 37.4319 255 255 255
-23.989 -22.4372 30.9429 255 255 255
8.61648 -7.32021 31.1258 255 255 255
13.1266 -9.16046 28.7507 255 255 255
12.0788 -7.40462 28.6446 255 255 255
5.69667 -29.429 36.0188 255 255 255
18.0864 -18.0766 26.7169 255 255 255
8.60889 -7.31583 31.1792 255 255 255
23.0036 -20.0986 24.0064 255 255 255
15.7125 -26.996 32.6261 255 255 255
-2.78447 -33.7921 37.0417 255 255 255
2.38693 -32.3952 37.7037 255 255 255
-5.59687 -18.3468 35.6073 255 255 255
-12.3759 -19.7323 32.4483 255 255 255
12.9405 -15.5832 30.7682 255 255 255
6.00497 -14.464 34.842 255 255 255
47.1025 8.92489 -10.0082 255 255 255
-5.78434 -23.3159 34.6989 255 255 255
17.0445 -26.3517 31.7881 255 255 255
-69.6451 -44.9146 23.4158 255 255 255
23.8294 -34.7563 19.0205 255 255 255
15.9733 -28.9988 34.7826 255 255 255
-9.39514 -23.0254 35.0015 255 255 255
50.7034 -7.91444 -12.467 255 255 255
8.49438 -3.55963 28.3827 255 255 255
15.9937 -27.6437 33.3186 255 255 255
24.775 -14.9126 17.9367 255 255 255
-7.65316 -22.6003 34.2658 255 255 255
18.7708 -17.6743 25.8775 255 255 255
24.697 -8.66208 10.4119 255 255 255
2.77011 -29.4712 36.433 255 255 255
18.4774 -35.1056 24.8596 255 255 255
2.02203 -24.7655 35.8982 255 255 255
-17.9643 -25.4416 33.6544 255 255 255
-64.4485 -9.75891 -17.9171 255 255 255
15.2132 -10.6234 27.2836 255 255 255
12.5071 -33.5649 31.8387 255 255 255
6.49249 -12.2544 33.8724 255 255 255
4.69266 -19.7027 34.8194 255 255 255
-21.8995 -8.4208 19.0663 255 255 255
-30.4322 20.2822 -53.3878 255 255 255
10.6309 -8.86974 30.2712 255 255 255
-1.49846 -34.3525 36.0711 255 255 255
-6.71634 -30.1839 38.1285 255 255 255
53.4678 -15.1662 -11.0159 255 255 255
48.4627 -12.8169 -19.3323 255 255 255
10.0857 -22.3272 32.2696 255 255 255
22.8353 -23.5131 27.7313 255 255 255
10.8947 -13.5113 32.1486 255 255 255
47.0906 8.91769 -9.92639 255 255 255
15.9911 -20.2838 29.5378 255 255 255
56.4268 -15.3707 -4.49236 255 255 255
-38.1503 -51.8842 28.7836 255 255 255
13.9528 -13.0691 29.426 255 255 255
10.2589 -32.6001 34.6665 255 255 255
-16.8969 -16.0006 28.8041 255 255 255
14.6155 -16.5053 29.0593 255 255 255
10.8595 -5.34942 28.2036 255 255 255
23.4319 -19.3478 23.2093 255 255 255
10.8595 -5.34942 28.2036 255 255 255
-33.4118 -48.7115 24.7357 255 255 255
-26.173 -5.78235 11.7641 255 255 255
-31.5779 22.0892 -55.4004 255 255 255
-10.2055 -22.757 34.7343 255 255 255
11.1214 -10.2175 30.8284 255 255 255
3.9005 -13.9202 34.7372 255 255 255
2.65061 -13.9437 35.111 255 255 255
9.43901 -9.88424 31.5014 255 255 255
-1.2248 -29.623 37.1917 255 255 255
22.2604 -31.9278 21.0891 255 255 255
23.4434 -18.4742 22.2291 255 255 255
15.1325 -15.2274 28.2142 255 255 255
-65.3795 -8.55049 -20.009 255 255 255
-11.3023 -22.0937 34.1749 255 255 255
23.2747 -17.845 21.5376 255 255 255
-0.339974 -30.5114 38.0281 255 255 255
16.5863 -25.1764 30.6265 255 255 255
7.48938 -13.9703 33.8094 255 255 255
6.95793 -17.0857 34.4 255 255 255
26.5328 -16.0172 18.3382 255 255 255
15.3425 -15.7346 28.2843 255 255 255
22.7051 -23.3426 27.5574 255 255 255
-4.36488 -7.70509 33.8116 255 255 255
7.14291 -23.7839 34.0415 255 255 255
6.08483 -45.6762 30.5991 255 255 255
-5.96446 -24.0032 35.9068 255 255 255
-9.24926 -29.2577 37.341 255 255 255
-3.33439 -13.1452 35.7164 255 255 255
13.3995 -15.526 30.2691 255 255 255
6.26929 -23.8901 34.5135 255 255 255
-10.671 -26.37 34.6568 255 255 255
10.6309 -8.86974 30.2712 255 255 255
-22.6703 -6.5762 16.9014 255 255 255
6.03342 -24.0471 34.9006 255 255 255
21.017 19.5855 -56.0481 255 255 255
50.0814 1.57219 -7.42272 255 255 255
50.03 1.55935 -7.27193 255 255 255
3.93806 2.70261 21.8267 255 255 255
3.31011 2.53273 21.5968 255 255 255
-0.0887806 2.63949 20.8651 255 255 255
-0.0807946 2.21323 20.0773 255 255 255
48.845 0.0104061 -11.8403 255 255 255
-1.06253 -8.65012 34.5887 255 255 255
54.2615 -18.8118 -11.1748 255 255 255
6.43528 -13.585 34.2975 255 255 255
2.44687 -14.5467 35.6708 255 255 255
-66.0325 -8.8907 -18.6851 255 255 255
3.75439 -27.0945 35.8599 255 255 255
-17.6044 -25.3506 33.6132 255 255 255
41.5647 -44.6159 14.955 255 255 255
41.4101 -49.2304 23.1358 255 255 255
2.62623 2.738 21.3816 255 255 255
5.36763 1.55167 22.1828 255 255 255
-2.97782 1.27985 23.7365 255 255 255
-5.16219 1.51125 22.9865 255 255 255
21.2518 -3.20907 4.19815 255 255 255
24.8472 -9.15409 10.9238 255 255 255
5.4448 -8.78124 33.2213 255 255 255
54.6045 -13.5243 -7.16651 255 255 255
48.5809 -12.4554 -20.3207 255 255 255
-43.3725 -6.90016 -21.74 255 255 255
54.7851 -20.1177 -11.3492 255 255 255
7.90667 -24.2138 34.626 255 255 255
-12.9354 -26.7084 34.7978 255 255 255
47.6508 -40.2124 9.28765 255 255 255
35.7011 -51.2112 23.7753 255 255 255
-34.409 -48.9514 25.1394 255 255 255
-8.54712 -2.48583 28.9436 255 255 255
55.0337 -18.9806 -9.75764 255 255 255
-35.4495 -48.8614 25.0978 255 255 255
-33.3325 12.3056 -45.4791 255 255 255
55.3009 -28.7642 -3.90362 255 255 255
45.1621 -40.571 10.0568 255 255 255
51.3155 -10.8054 -12.5171 255 255 255
-15.8518 -8.23698 28.0474 255 255 255
-10.8147 -10.717 32.6404 255 255 255
2.35772 -16.3518 35.9688 255 255 255
-4.61339 1.29933 22.9039 255 255 255
3.78917 -21.0228 34.6898 255 255 255
12.6399 -23.7764 32.7079 255 255 255
-30.4439 -50.5477 27.0779 255 255 255
-15.037 -13.6453 30.4783 255 255 255
8.69585 -15.868 33.6185 255 255 255
-62.7582 -11.3835 -16.1017 255 255 255
-79.0486 30.5151 -31.789 255 255 255
-71.8339 32.1926 -35.9494 255 255 255
-54.9188 -22.7281 -2.859 255 255 255
-42.293 -5.03322 -24.3587 255 255 255
-7.25334 -25.351 36.2294 255 255 255
57.3776 -24.9832 -8.63092 255 255 255
-11.0835 -19.8119 33.2708 255 255 255
-5.75223 -18.9351 35.7454 255 255 255
50.7371 1.10128 -6.21915 255 255 255
-8.46601 -21.1271 34.1763 255 255 255
-9.01194 -15.3964 34.5177 255 255 255
-12.0029 -20.3825 32.5781 255 255 255
52.7232 -10.9512 -8.95705 255 255 255
48.0266 12.156 -6.04891 255 255 255
51.5866 18.8868 -33.9655 255 255 255
53.1296 -13.3694 -10.6131 255 255 255
